ply
format ascii 1.0
element vertex 710
property float x
property float y
property float z
property uchar red
property uchar green
property uchar blue
end_header
-0.15331470227772373 0.5135298280176183 2.1538593769073486 58 29 5
-0.14089707670865922 0.5116788575209203 2.1460959911346436 62 32 7
-0.12861410290012515 0.510021442534979 2.1391444206237793 65 33 4
-0.11642291169862244 0.5084291713420853 2.1324660778045654 65 33 6
-0.1044179868957519 0.507383175761048 2.1280789375305176 68 36 9
-0.09248619410297763 0.5064720153258299 2.1242573261260986 66 36 7
-0.08062075432574425 0.5057120044069413 2.1210696697235107 68 38 11
-0.06886057523282452 0.5054659245813714 2.12003755569458 68 40 14
-0.05709222882150029 0.5050466395748103 2.118278980255127 70 42 14
-0.04537870390171661 0.5050210595513622 2.1181716918945312 68 42 15
-0.03368014061819184 0.5052021092728777 2.1189310550689697 69 40 16
-0.02196349007493113 0.505160271723416 2.118755578994751 70 41 19
-0.010252553639323732 0.5053044293666696 2.1193602085113525 69 40 18
0.0014650049329818873 0.5054267018787512 2.119873046875 68 41 16
0.013186315242059881 0.5054754176122954 2.12007737159729 69 42 17
0.02491127134295001 0.5055522713716326 2.1203997135162354 67 40 17
0.0366487879356114 0.5057532735114374 2.1212427616119385 67 43 19
0.04840512532916424 0.506053582986717 2.122502326965332 70 43 18
0.06017639667817766 0.5063623622919827 2.1237974166870117 71 44 19
0.0719574185883995 0.5066389676122005 2.12495756149292 71 44 21
0.08378374506807262 0.5071121412014922 2.1269421577453613 72 43 23
0.09558332893076826 0.5073268997094623 2.127842903137207 73 44 22
0.10744203090511044 0.507773981674837 2.129718065261841 72 45 22
0.11925850021954827 0.5079528713054834 2.1304683685302734 71 44 21
0.13123056807957897 0.5087027639039859 2.1336135864257812 72 45 22
0.14331022922548178 0.5097116400287753 2.137845039367676 71 44 23
0.15533893101027638 0.5103993447480509 2.1407294273376465 73 43 26
0.16748643812239616 0.5113523995772272 2.1447267532348633 72 45 24
0.17961514469992326 0.5121258257973019 2.147970676422119 73 46 25
0.19195762382174705 0.5133750404535096 2.153210163116455 71 44 19
0.2044061406674373 0.5147453907318676 2.1589577198028564 71 44 19
0.2168136383596496 0.5158669326488214 2.1636617183685303 71 44 19
0.2294284892872147 0.5173387503535234 2.169834852218628 72 45 20
0.24238326585545583 0.5193927125474054 2.1784496307373047 70 46 22
0.25521142517964573 0.5209937377927679 2.1851646900177 71 44 19
0.26800715414186993 0.5223868258697465 2.191007614135742 71 44 19
0.2813258758692298 0.524634741485861 2.2004358768463135 71 44 19
0.2946080703117058 0.5266310065157436 2.208808660507202 69 45 21
0.3075964894302058 0.5279641236488607 2.214400053024292 67 44 22
0.3199434086838935 0.5281362487844176 2.2151219844818115 66 40 27
0.42499754299961573 0.6756873379486978 2.833984375 186 174 169
0.4546383537311818 0.697112142387812 2.923844814300537 187 186 188
0.4705469771223738 0.6967326485288368 2.922253131866455 186 186 186
0.4865003038494869 0.6964423436849502 2.9210355281829834 186 186 186
0.5026079671743694 0.6963845328319577 2.920793056488037 187 184 189
0.5187376365691501 0.6963598623204544 2.920689582824707 186 185 189
0.5349168110945273 0.6964011314249505 2.9208626747131348 186 185 187
0.5515851369614265 0.6970581401160886 2.9236183166503906 189 186 189
0.5681504978378397 0.6975513229681661 2.925686836242676 188 185 188
0.5851926215803933 0.6985863475613692 2.930027961730957 187 188 192
0.6022091471751666 0.6995358780317592 2.9340105056762695 186 191 196
0.6196440497474562 0.7009088431569587 2.9397690296173096 186 191 196
0.6376068768804489 0.7027935224401114 2.947673797607422 187 192 197
0.6560026933219046 0.7050496236637293 2.957136392593384 189 192 195
0.6746635426974469 0.7074739277526418 2.9673044681549072 189 190 194
0.6933339887421403 0.7097929558339418 2.9770309925079346 188 191 194
0.71287051687722 0.71287051687722 2.989938974380493 188 191 192
0.7343964941398959 0.7177529475304931 3.0104169845581055 187 189 189
0.7544298494359655 0.7209925153889422 3.0240044593811035 187 187 185
0.7745064395027453 0.7241320369334611 3.037172317504883 185 183 180
0.8021227311829097 0.7340380431249438 3.0787203311920166 185 182 175
0.922158738068785 0.8263500380096905 3.465897560119629 160 154 142
1.0291809878549312 0.9034794931550922 3.789395809173584 115 104 90
1.0509573941238464 0.9041902767399675 3.79237699508667 115 106 93
1.0893459444546028 0.9188859433663521 3.8540139198303223 200 202 198
1.1244772268688177 0.9303228855389499 3.9019830226898193 203 210 208
1.1517829460881919 0.934976744471591 3.9215023517608643 202 209 207
1.1820605850555534 0.9418265631504987 3.9502320289611816 201 207 207
1.209438273856261 0.9461591938331294 3.9684040546417236 201 207 207
1.2332032154568946 0.9475614907185492 3.97428560256958 200 207 209
1.257354413928693 0.9492062862262562 3.981184244155884 200 207 209
1.2775410621905288 0.94785304614136 3.975508451461792 198 207 211
1.295407185301222 0.9448530209913775 3.962925672531128 198 207 211
1.312591533150313 0.9414637815735094 3.9487104415893555 200 207 209
1.3272329946772197 0.9363913766127624 3.9274356365203857 200 207 209
1.3404166110414433 0.930470283318507 3.9026012420654297 200 207 209
1.3569490482445208 0.9270245973155636 3.8881492614746094 200 207 209
1.3737959569465517 0.9238978657827687 3.875035047531128 197 206 210
1.3903757026111587 0.9206902445313815 3.861581563949585 197 206 210
1.4078307502139593 0.9181504892699736 3.8509292602539062 197 206 210
1.426964680744699 0.9167650183555328 3.845118284225464 197 206 210
1.442879670060438 0.9133825434327544 3.8309314250946045 197 206 212
1.4596190187594615 0.910612226893335 3.81931209564209 197 206 212
1.4808382832202798 0.9106759495739688 3.8195793628692627 197 206 212
1.5020219707702898 0.9107163091665201 3.819748640060425 197 206 212
1.5197680745529314 0.9087001485628445 3.8112924098968506 197 206 210
1.5351140985700573 0.9053236991567005 3.797130823135376 197 206 210
1.5488312901674746 0.901090716876524 3.779376745223999 198 207 211
1.557281903747959 0.8939471826839366 3.749415159225464 198 207 211
1.5698716995986441 0.889336184501695 3.7300755977630615 198 209 212
1.5819908563007508 0.8845815971211654 3.7101337909698486 198 209 212
1.5968167960137647 0.8814428713995981 3.6969692707061768 198 209 212
1.6126002198132194 0.8789053330735557 3.686326265335083 198 209 212
-1.3223987202099248 0.730526992541633 2.9945552349090576 84 52 11
-1.3015445285712237 0.7281223749376259 2.9846982955932617 85 53 12
-1.2843723563189937 0.7277422821518535 2.983140230178833 85 53 12
-1.2665282565786977 0.7269666253207809 2.9799606800079346 85 53 14
-1.2490750616121846 0.7263978529639228 2.9776291847229004 85 56 12
-1.2323597327611369 0.7262487239811041 2.977017879486084 86 56 14
-1.214148732112668 0.7252022037830319 2.9727280139923096 86 57 13
-1.1972439224302833 0.7249178466859177 2.971562385559082 86 57 13
-1.180193026346162 0.7245358926959916 2.969996690750122 84 55 11
-1.163163272954658 0.7241563233738876 2.9684407711029053 82 53 9
-1.146707219596413 0.7241281726610622 2.96832537651062 82 50 9
-1.1296830297158378 0.723735225934103 2.96671462059021 84 52 11
-1.1126632302075965 0.7233335548126733 2.9650681018829346 84 52 11
-1.0959817099915976 0.7231430722000636 2.964287281036377 85 53 12
-1.0805820415759264 0.7238054282282771 2.9670023918151855 85 50 10
-1.0650379337660185 0.7243899626578122 2.9693984985351562 85 50 10
-1.0495915202260166 0.725060286966309 2.9721462726593018 83 51 10
-1.0342912530628143 0.7258544976762893 2.9754018783569336 82 50 11
-1.0192897894076498 0.726887465981617 2.9796361923217773 83 53 15
-1.0039589758244343 0.7277156436674032 2.9830310344696045 84 52 15
-0.9881623080811165 0.7282281727612403 2.9851319789886475 84 52 13
-0.974585740046934 0.7304220089948359 2.9941248893737793 85 53 14
-0.9604657445573224 0.7322773387229693 3.00173020362854 84 54 14
-0.946664387350645 0.7344451180984125 3.0106163024902344 83 53 15
-0.9332892404578752 0.7370270735606934 3.021200180053711 97 70 34
-0.9176733080612918 0.7379013160492847 3.0247838497161865 120 93 59
-0.9028087086533234 0.7394233739086384 3.0310230255126953 129 102 69
-0.8855538856564746 0.7390083253823535 3.0293216705322266 132 105 72
-0.868451349230653 0.7387068103094471 3.028085708618164 131 106 71
-0.8518471891019274 0.7388256947247674 3.0285730361938477 131 106 72
-0.8353762901031497 0.7390672441263455 3.0295631885528564 132 107 73
-0.8188188091920918 0.7392405106005331 3.0302734375 133 108 74
-0.801793182381504 0.7389895388529267 3.0292446613311768 134 109 74
-0.7845327696758277 0.7385068471881793 3.027266025543213 136 109 75
-0.7645128260560778 0.7353488490403146 3.0143208503723145 134 105 70
-0.7434887239104522 0.7310627285247622 2.996751308441162 131 105 66
-0.7236259785557646 0.7277492035048003 2.983168601989746 134 108 69
-0.7037378858281483 0.7242550253566657 2.9688453674316406 136 108 70
-0.6832959647499005 0.7200103747961639 2.9514458179473877 138 110 72
-0.6629301116588042 0.7156401511179141 2.9335315227508545 133 108 73
-0.6462247169190206 0.7151013325154053 2.9313228130340576 194 177 147
-0.6333169809017255 0.7188453191585501 2.9466700553894043 169 155 128
-0.6196710578035176 0.7219270079361112 2.9593024253845215 199 187 161
-0.6044671269034372 0.7233115111759774 2.964977741241455 198 188 164
-0.5886465103265722 0.7240146973703137 2.967860221862793 198 189 162
-0.5728064331598881 0.7247335874746971 2.9708070755004883 198 183 161
-0.5572749558675806 0.7258968982334167 2.9755756855010986 198 183 162
-0.555577965907907 0.7456997032908409 3.056750774383545 156 142 125
-0.5494030477666183 0.7605461798494755 3.1176090240478516 123 109 96
-0.5350198403440096 0.7646234965240298 3.1343226432800293 118 106 96
-0.5193382200948782 0.7670560321903431 3.144294023513794 117 105 93
-0.5031958005619044 0.768952890036157 3.152069568634033 118 104 89
-0.4871348789012526 0.7711148531486196 3.1609318256378174 120 102 84
-0.469221904062202 0.770396893646313 3.1579887866973877 103 80 56
-0.4489838116957542 0.7656583841961412 3.1385648250579834 125 95 66
-0.4291488334771153 0.7612539608915664 3.1205103397369385 137 102 66
-0.4095700100708017 0.7569539976701204 3.10288405418396 138 103 65
-0.3897573201673439 0.7518269618528546 3.0818674564361572 138 103 63
-0.3693281393412898 0.7449876182141446 3.0538318157196045 139 105 61
-0.3496527081364042 0.7390862633062916 3.0296411514282227 140 106 60
-0.3303232493437278 0.7333591636373328 3.006164789199829 144 107 64
-0.3131474972063484 0.7320600431380198 3.0008394718170166 147 106 68
-0.2170972062244783 0.5359112852953904 2.1967921257019043 77 43 15
-0.2022051917868066 0.5287291311166128 2.167351245880127 64 35 11
-0.18986739104943232 0.5277416459877922 2.1633033752441406 60 30 5
-0.17747843026516202 0.526469629273968 2.1580891609191895 56 26 1
-0.16499830623172276 0.5247243432414247 2.150934934616089 56 27 3
-0.15259380959939506 0.5229671338697713 2.1437318325042725 62 31 8
-0.14018578069948165 0.520900848283337 2.1352617740631104 63 33 8
-0.12789455834258134 0.518928495344037 2.1271767616271973 64 34 9
-0.11577575407635345 0.51732710365763 2.120612382888794 65 35 10
-0.10380008738300776 0.5160764907915738 2.115485906600952 68 36 9
-0.09197404051235102 0.5153466079501573 2.1124939918518066 66 36 9
-0.0801738807901903 0.5145705439806759 2.1093127727508545 67 39 13
-0.06845378893053838 0.5141316487761712 2.107513666152954 67 39 13
-0.05676561319611672 0.5138015758520308 2.1061606407165527 69 40 16
-0.04511311026669737 0.5137073523917475 2.105774402618408 68 40 12
-0.033474837244814676 0.5137659803225905 2.1060147285461426 68 40 12
-0.021825360419811732 0.5136234818795694 2.1054306030273438 69 40 16
-0.010188394162283083 0.5137861627551326 2.106097459793091 69 40 16
0.0014559063534339163 0.5139349427621724 2.1067073345184326 68 41 16
0.013106062181828994 0.5140488833539595 2.1071743965148926 70 43 20
0.024769597886578957 0.514333414938963 2.1083407402038574 68 44 20
0.03643835620004539 0.5145095895446409 2.109062910079956 70 43 20
0.0481233155245622 0.5147736478839532 2.110145330429077 70 43 18
0.05982552624756567 0.5150831893997727 2.1114141941070557 71 44 21
0.07153987796643252 0.515379120860218 2.1126272678375244 71 44 21
0.08331118292784391 0.5159446942724368 2.114945650100708 73 44 22
0.09509051597983488 0.5164146483212572 2.1168720722198486 72 45 24
0.10689623789479145 0.5169092051624847 2.118899345397949 71 44 23
0.11865912690491345 0.5171194049065981 2.1197609901428223 72 45 24
0.13059504957393714 0.5179781179730316 2.1232810020446777 72 45 24
0.14261402139335544 0.5189974180603553 2.1274592876434326 72 45 22
0.15461372869527584 0.5197966307564988 2.130735397338867 72 45 22
0.16673487841486145 0.5208620538092574 2.1351027488708496 74 47 22
0.178808961715136 0.5216492850036613 2.1383297443389893 73 46 23
0.1911342728104014 0.5230263434269123 2.143974542617798 73 44 20
0.20354624358780898 0.5244658685145734 2.1498754024505615 73 44 20
0.21595506155524116 0.5257388739931044 2.1550936698913574 73 44 22
0.22865632847506323 0.5275534898803746 2.162532091140747 73 44 22
0.24156640665038298 0.5296455996744421 2.1711080074310303 71 44 21
0.2543889228813486 0.5313567442432903 2.1781222820281982 72 45 22
0.2673629280479564 0.5332153310786928 2.1857409477233887 71 44 21
0.28070608878966685 0.5356175640148778 2.1955881118774414 67 43 19
0.29391972827500223 0.5375837517154186 2.2036478519439697 68 44 20
0.3070547767013726 0.5392554038586295 2.2105002403259277 64 46 18
0.32040537072603203 0.5411631381162167 2.218320369720459 66 40 27
0.43845319751710093 0.7132441415831181 2.9237098693847656 198 187 187
0.45569844180436414 0.7149402220308468 2.9306623935699463 186 185 187
0.47153891424625766 0.7143915739439011 2.9284133911132812 183 185 185
0.4878010835490327 0.7144970227917367 2.9288456439971924 184 186 186
0.5040981051188598 0.7146451048472189 2.929452657699585 186 185 187
0.5201198630633543 0.714405881950833 2.9284720420837402 184 185 187
0.5362154845819008 0.7142794945562678 2.9279539585113525 184 185 187
0.5526310420855695 0.7145742046014872 2.92916202545166 186 185 187
0.5689607378720141 0.7147442721310355 2.929859161376953 187 184 187
0.5857760795893604 0.7154981179759315 2.9329493045806885 187 186 190
0.6025510608903221 0.7161633821356352 2.935676336288452 186 187 191
0.6195933436326994 0.7171031157453864 2.939528465270996 187 188 192
0.637221221737114 0.7186552436843491 2.9458909034729004 188 189 193
0.6552714877337683 0.7205945020872904 2.9538402557373047 188 189 191
0.6735448474540203 0.7226788180889641 2.9623842239379883 186 190 189
0.6920086299765857 0.72486363911494 2.9713401794433594 187 190 193
0.7110268224760806 0.7275144009682796 2.982206106185913 188 191 194
0.7316023614040882 0.7316023614040882 2.9989633560180664 188 191 194
0.7515447945046075 0.7348900622164168 3.0124402046203613 190 193 196
0.7708719422801575 0.7374466006094732 3.0229198932647705 187 190 191
0.7964658575345235 0.7457624607684 3.0570080280303955 189 189 185
0.8427670943956348 0.7727189203159976 3.1675071716308594 190 187 180
1.0279054126756229 0.9232839966272134 3.7846992015838623 112 106 96
1.051109556625581 0.9252909563312471 3.792926073074341 112 104 89
1.08247335469421 0.934261844027032 3.8296992778778076 129 124 110
1.1222061626908078 0.9499730825655998 3.8941023349761963 204 208 203
1.149892178677075 0.9550869154659 3.915064811706543 200 207 209
1.1808793430711217 0.962703021025649 3.946284532546997 200 207 209
1.2101709257661095 0.9686855709647091 3.9708080291748047 201 207 207
1.2345695563034291 0.9706081366928965 3.978688955307007 200 207 207
1.2602258416689445 0.9734348405013947 3.9902760982513428 200 207 207
1.282917854601308 0.9739139842457241 3.9922401905059814 200 207 209
1.301753947650918 0.9714992463441311 3.982341766357422 200 207 209
1.3183187339859992 0.9674979482267312 3.96593976020813 200 207 209
1.3350073609174333 0.9637169701510306 3.9504408836364746 200 207 209
1.348790746860101 0.9579942326793073 3.9269824028015137 198 208 209
1.3646140087656389 0.9538787031569713 3.910112142562866 198 208 209
1.3805593329410042 0.9499755253960516 3.8941123485565186 197 206 210
1.3975953066033309 0.9469311770268249 3.8816330432891846 197 206 210
1.4139344128726046 0.943513889875292 3.8676249980926514 197 206 210
1.4316723313772763 0.9411179385031258 3.8578035831451416 197 206 210
1.4482991485689607 0.9380726595318223 3.845320463180542 197 206 210
1.4644435177857829 0.9348075258198578 3.8319361209869385 197 206 210
1.4843074272168997 0.933975974701543 3.8285274505615234 197 206 210
1.5049643844349343 0.9336598026459257 3.8272314071655273 197 206 210
1.5227259036212073 0.9315810120940835 3.8187100887298584 196 207 212
1.5387406192740292 0.9285050232542432 3.806101083755493 196 207 212
1.5520210207257472 0.9238843512920553 3.7871601581573486 197 208 213
1.5589366074985649 0.9156482902612203 3.753399133682251 197 208 213
1.5691882641482096 0.9095623271663679 3.728451728820801 197 208 211
1.5811057953982492 0.9045872703007811 3.7080581188201904 197 208 211
1.5951369999490146 0.9009333775712034 3.693080186843872 198 209 212
1.614514700935864 0.9003533798267931 3.6907026767730713 198 209 214
-1.3185237781814254 0.7448937150602418 2.9857804775238037 85 50 10
-1.2980675347615465 0.7426345167177786 2.976724863052368 86 51 11
-1.2805144753834925 0.741999559572136 2.974179744720459 83 51 10
-1.2626472603641654 0.7411636764088841 2.9708292484283447 83 51 10
-1.2452352486587204 0.740576482315977 2.968475580215454 84 53 10
-1.2281940046053468 0.740197054528431 2.9669547080993652 85 53 12
-1.2098785517825486 0.739029030784264 2.962272882461548 84 55 11
-1.1925325185780338 0.7384292267695887 2.9598686695098877 84 55 11
-1.1752993783789027 0.737883609730059 2.957681655883789 85 55 13
-1.1582620381419255 0.7374472588522666 2.9559326171875 85 55 13
-1.1416282977848613 0.7372590617179515 2.9551782608032227 85 53 14
-1.1241116482130646 0.7364869419326976 2.9520833492279053 83 51 12
-1.1067438289021385 0.7357910170049208 2.949293851852417 83 51 10
-1.0903522643894807 0.7357330232609394 2.949061393737793 85 54 11
-1.0747002136588553 0.73617984275303 2.950852394104004 86 52 10
-1.058824579682895 0.7364849195867537 2.952075242996216 85 51 9
-1.0431566907573973 0.7369463118657934 2.9539246559143066 84 50 8
-1.0274327149324356 0.7373821274167183 2.955671548843384 82 48 6
-1.0118869602797944 0.7379620053757692 2.957995891571045 84 50 8
-0.9963699885496401 0.7385822707729365 2.960482120513916 86 51 11
-0.9805010724398056 0.7389580107531729 2.9619882106781006 86 54 13
-0.9668962391799714 0.7410818308789164 2.970501184463501 87 55 18
-0.952445619951286 0.7426195870462511 2.9766650199890137 88 56 17
-0.9377383736890373 0.7440078085752583 2.982229471206665 86 54 15
-0.923681138972318 0.7459706737561673 2.9900972843170166 87 56 23
-0.9105320588526989 0.7487518752752262 3.0012452602386475 86 56 29
-0.8969888631514583 0.7513062171639825 3.011483907699585 89 61 33
-0.8805357523609348 0.7514737744735165 3.012155532836914 113 85 55
-0.8639156205763449 0.7515025036820734 3.01227068901062 130 101 69
-0.8479261891908223 0.7520917796016875 3.0146327018737793 131 104 71
-0.8319607356377783 0.7527263798627517 3.017176389694214 132 104 74
-0.8156874922032418 0.7531027741313818 3.0186851024627686 132 104 74
-0.7992367733302732 0.7533276114157405 3.0195863246917725 133 108 74
-0.7819775477683583 0.7527837193183395 3.0174062252044678 134 109 74
-0.7643420001056088 0.7518459456079695 3.0136473178863525 132 105 69
-0.7443936194230837 0.7485406590856079 3.000398635864258 130 104 65
-0.7250302818047627 0.7456864151895138 2.9889578819274902 131 105 64
-0.7058167887508504 0.7428567368485627 2.9776155948638916 132 106 65
-0.6862209551644355 0.7394798949682425 2.9640800952911377 137 109 69
-0.6666858878505338 0.7360049098288768 2.950151205062866 137 113 73
-0.6493942240178536 0.7348944039825868 2.94569993019104 195 178 144
-0.6363151242517221 0.7386165911732209 2.9606196880340576 172 155 127
-0.6225573811085986 0.7417267807927528 2.973086357116699 201 189 163
-0.6070418926078877 0.7428546550218557 2.977607250213623 200 190 166
-0.5914856363876168 0.743994127999755 2.9821746349334717 200 188 162
-0.5764187017128245 0.7458320835782425 2.98954176902771 199 184 163
-0.5674032708343087 0.7558397814434887 3.029655933380127 176 160 144
-0.5651659217038866 0.7757600674338518 3.1095030307769775 124 110 97
-0.5499480727995505 0.7785539383554421 3.120701789855957 121 107 94
-0.5345958959011645 0.7813324632401635 3.1318390369415283 119 107 95
-0.5187608418107755 0.7835676313543514 3.140798330307007 116 105 91
-0.5025645953178008 0.7853931554533599 3.148115634918213 119 101 81
-0.48549820029335317 0.7859410327618856 3.1503117084503174 122 99 77
-0.4668428786743755 0.7838617637276724 3.141977310180664 126 98 70
-0.4476051848586982 0.7806061436424641 3.128927707672119 136 103 69
-0.42840512325310437 0.7771570326350286 3.115102529525757 141 105 67
-0.40907973221964783 0.7731821116821616 3.0991697311401367 138 103 63
-0.3893267453494677 0.7680161479298243 3.078462839126587 138 103 63
-0.3688316150214149 0.7608469315584616 3.0497262477874756 139 105 61
-0.3493818953527683 0.7552506839661638 3.027294635772705 140 106 60
-0.3295550483686361 0.7482350469250165 2.999173641204834 147 110 69
-0.3119917325957376 0.7458875196494124 2.9897639751434326 149 113 75
-0.2141441090898153 0.5406015621078554 2.16690993309021 62 32 5
-0.20152674283446945 0.5388974382462479 2.16007924079895 59 31 3
-0.18940665635411935 0.5383921491640715 2.1580538749694824 58 27 4
-0.17696183851987132 0.5368338126527189 2.1518075466156006 59 27 2
-0.1644768657332596 0.5349202570243848 2.144137382507324 60 27 4
-0.15209537233863624 0.5330721302354143 2.1367294788360596 65 30 8
-0.13966360221116325 0.5307216884024204 2.1273081302642822 66 34 9
-0.1273943633511292 0.5286133927558349 2.1188573837280273 65 35 8
-0.1152888433965953 0.5268262337489987 2.111693859100342 64 36 8
-0.10337837058536083 0.5256280532579615 2.10689115524292 67 37 10
-0.09156304293908706 0.5246707698573084 2.1030540466308594 65 35 10
-0.07980738866809278 0.5238266783487544 2.099670648574829 66 36 11
-0.0681324038226708 0.5233148463826416 2.09761905670166 66 38 12
-0.05649130439355958 0.5229066893865387 2.0959830284118652 69 41 15
-0.044878250061846814 0.5226144603976355 2.0948116779327393 69 41 13
-0.033288754890537994 0.5224887180645311 2.0943076610565186 69 41 15
-0.021699679709437033 0.5222389583404512 2.093306541442871 69 40 16
-0.010127316480788788 0.5222801785092503 2.0934717655181885 70 41 17
0.001447335686253916 0.5224881827376636 2.0943055152893066 68 41 16
0.01303043873511722 0.522665375930813 2.09501576423645 69 42 17
0.024622372782478065 0.5228633279102695 2.0958092212677 70 43 18
0.036228534101109044 0.5231400324200146 2.0969183444976807 71 44 19
0.04785373420691824 0.5234908499605299 2.0983245372772217 70 43 18
0.05949546930579089 0.5238503516924514 2.0997655391693115 71 44 19
0.07117214317421039 0.5243498711406113 2.1017677783966064 71 44 21
0.08289747856794417 0.5250173642636464 2.104443311691284 72 45 22
0.09462197150976241 0.5255158725388344 2.1064414978027344 71 44 19
0.1063671036172951 0.5260071836416922 2.1084108352661133 71 44 21
0.11811441921256195 0.5264111769843811 2.110030174255371 71 44 23
0.1300058113858874 0.5273269428124198 2.1137008666992188 71 44 23
0.14199048537805328 0.5284388167162601 2.1181576251983643 71 44 21
0.15395210571391785 0.5293020015497556 2.121617555618286 71 45 18
0.16602547129063594 0.5303999569550405 2.126018524169922 72 45 20
0.1780887460629996 0.5313226225515938 2.1297168731689453 73 46 23
0.19035194375356687 0.532690323217346 2.1351990699768066 74 45 23
0.20270343429337723 0.5341309472986072 2.1409735679626465 73 44 20
0.21506444669827657 0.5354363121246747 2.1462059020996094 73 44 22
0.22772855066345338 0.5373203058137691 2.1537575721740723 71 44 21
0.24079053232732348 0.539909206025862 2.1641347408294678 71 44 21
0.2536849591531595 0.5418950902620744 2.1720948219299316 69 45 23
0.2666684237382934 0.5438830563249939 2.180063247680664 72 45 24
0.2800800529346497 0.5465345897805867 2.1906914710998535 68 43 24
0.2934832101590533 0.5489504604529444 2.2003750801086426 67 43 24
0.306404502847326 0.5503085847158442 2.2058188915252686 63 44 13
0.31950383019206363 0.551870252149928 2.21207857131958 60 41 21
0.4413689301874976 0.7342589115100766 2.943152666091919 185 179 175
0.45682399990857425 0.7329487287422014 2.937901020050049 185 185 183
0.47270192002189576 0.7323836614931518 2.935636043548584 182 186 183
0.4891552715365047 0.732718062343063 2.936976432800293 184 186 186
0.5056195876130484 0.7330468720012469 2.9382944107055664 183 184 186
0.5218284850546888 0.7329964323141738 2.9380922317504883 184 185 187
0.5379632337111947 0.7328480278103444 2.93749737739563 184 185 187
0.5542431717797582 0.7329003114010723 2.93770694732666 186 185 187
0.5703974555006123 0.7327881901627082 2.9372575283050537 187 184 187
0.5869396147602663 0.7331667852195715 2.938775062561035 187 184 187
0.6035776339426377 0.7336415011895362 2.9406778812408447 187 186 190
0.6203928820725231 0.7343010833710847 2.943321704864502 186 185 189
0.6376551998102837 0.7354425786949279 2.94789719581604 185 186 190
0.6551081102247808 0.7367415195985851 2.95310378074646 184 187 190
0.6730069933955197 0.738466640169552 2.9600186347961426 184 188 187
0.6912347590513047 0.7404621602893798 2.968017339706421 185 188 191
0.7095685906060545 0.7424761194457555 2.9760899543762207 186 189 192
0.7300889116139455 0.7466348359564713 2.9927594661712646 187 188 192
0.7500226817779572 0.7500226817779572 3.0063390731811523 189 190 194
0.7703752152972949 0.7536733136106327 3.0209720134735107 188 191 192
0.7960212859539298 0.7622378892025694 3.0553016662597656 188 192 191
0.8373641947081062 0.7851648682847437 3.147200584411621 190 191 193
0.9533814917601381 0.8757524644412464 3.510305643081665 160 160 156
1.05572735489251 0.9504178930578456 3.809589385986328 109 100 87
1.0897595815897068 0.9618660365620638 3.8554773330688477 111 101 85
1.1236053262087176 0.9727134838401609 3.8989574909210205 181 180 172
1.150473182980991 0.9772254566026771 3.9170429706573486 200 206 208
1.182364153615302 0.9857585668709562 3.951246500015259 200 207 209
1.2121769082391025 0.9922808704633017 3.9773900508880615 201 207 207
1.237999427673132 0.9953625687973289 3.9897425174713135 200 208 206
1.2626704029944613 0.9974267297177255 3.998016357421875 200 208 206
1.2858590852413576 0.9982690962841507 4.001392841339111 200 207 207
1.3067103562263025 0.9972990245194403 3.997504472732544 200 207 209
1.3249837327527536 0.9944264605483244 3.985990285873413 200 207 209
1.3417292295548042 0.990519942472974 3.9703316688537598 200 207 209
1.3586091594720318 0.986836834143669 3.955568552017212 198 208 209
1.3739670761816696 0.9821824049536291 3.9369120597839355 198 208 209
1.3879651857017763 0.9767162417901388 3.91500186920166 197 206 210
1.4051065207208437 0.9735958809601241 3.902494430541992 197 206 210
1.4223588392645112 0.9706456351124547 3.8906688690185547 197 206 210
1.439616215320705 0.9677866922360792 3.879209280014038 197 206 210
1.4536818997658785 0.962897551955013 3.859611988067627 197 206 210
1.4699025483654726 0.9595566364555798 3.8462204933166504 197 206 210
1.4889743322086493 0.9581456932750845 3.8405649662017822 197 206 210
1.5090198245461826 0.9573921909686677 3.8375446796417236 197 206 210
1.527323030922457 0.955569521946286 3.8302388191223145 196 207 212
1.5444960726483343 0.9530992858564935 3.8203372955322266 196 207 212
1.5578895738875904 0.948394833344722 3.801480293273926 197 208 213
1.565488976886586 0.9403353089119094 3.7691750526428223 197 208 213
1.5755465919638372 0.9339446957289741 3.7435593605041504 197 208 211
1.5826904874897028 0.9260150178019169 3.7117745876312256 197 208 211
1.596312198127713 0.922029925638567 3.695801019668579 198 209 212
1.6154722543890674 0.9213040818869721 3.6928915977478027 198 209 214
-1.3166833807610858 0.7603382902986553 2.9816129207611084 87 52 12
-1.296326178743298 0.7580734706121663 2.972731590270996 88 53 13
-1.2789018497416669 0.7574876124473116 2.9704341888427734 85 53 12
-1.2612885063631036 0.7567731038178622 2.967632293701172 85 53 12
-1.2433718997374068 0.7558554052769408 2.964033603668213 86 55 12
-1.226123872211779 0.7553250565044182 2.96195387840271 87 56 13
-1.2076142422136287 0.753992648691758 2.956728935241699 89 58 13
-1.1902268153410254 0.7533339534491224 2.954145908355713 88 57 12
-1.1723848662998988 0.7523652446341959 2.9503471851348877 86 54 13
-1.155241495588788 0.7518238304625445 2.9482240676879883 84 52 13
-1.138740359272245 0.751690863276312 2.947702646255493 86 54 15
-1.1210158310242275 0.7507347398329218 2.943953275680542 87 55 16
-1.1036163751970873 0.7499713488908383 2.9409596920013428 85 55 13
-1.0866910355892816 0.7495121348269997 2.9391589164733887 84 54 12
-1.0709631368349912 0.7498774145960375 2.940591335296631 85 54 11
-1.0549178773984225 0.750028317456682 2.941183090209961 84 53 10
-1.0392095934555423 0.750427279814276 2.9427475929260254 84 52 11
-1.0236771152057953 0.7509679036002753 2.9448676109313965 87 52 12
-1.0079060413263246 0.7513481398978057 2.9463586807250977 87 53 11
-0.9923005478860412 0.7518663288910661 2.9483907222747803 90 56 14
-0.9767841829914834 0.7524704875237106 2.9507598876953125 86 54 13
-0.962645652900663 0.7541746197884175 2.95744252204895 88 53 15
-0.9478433801054464 0.7554086549868461 2.9622817039489746 89 55 13
-0.9332727804336405 0.7568739691868426 2.9680278301239014 87 55 16
-0.9194359865325799 0.7589974922383042 2.9763550758361816 89 56 22
-0.9056072963499942 0.7612052217611568 2.9850125312805176 87 56 24
-0.8915233796504268 0.7632763969628944 2.9931344985961914 88 56 27
-0.8775754021980452 0.7655444997897841 3.002028703689575 88 59 27
-0.8646213515916934 0.7687838041863491 3.0147314071655273 84 55 23
-0.8472934107546809 0.7681849350576836 3.012382984161377 118 90 62
-0.8301307442204074 0.7677148987903016 3.0105397701263428 127 101 72
-0.8141985301983801 0.7683868481923332 3.0131747722625732 130 102 72
-0.7975994977727766 0.7684444247471398 3.0134005546569824 133 106 73
-0.7807502009428238 0.7682581977277386 3.0126702785491943 136 109 75
-0.7628829348458332 0.7670403350357288 3.007894515991211 130 105 68
-0.745227001098954 0.765985413385833 3.0037577152252197 130 103 67
-0.725979612083665 0.7632093357802632 2.9928715229034424 131 105 64
-0.7073281118977555 0.7609448200882559 2.9839913845062256 133 105 67
-0.6881601301954485 0.758003247886927 2.972456216812134 134 105 70
-0.668881229227538 0.7547925797705246 2.9598658084869385 133 108 71
-0.6515648176077927 0.7536909645682618 2.9555459022521973 197 175 143
-0.6379493990788674 0.7569238850807141 2.9682235717773438 185 168 140
-0.6243486648839178 0.7603454037695236 2.9816408157348633 201 189 163
-0.6088629225315688 0.76159463869203 2.986539602279663 200 191 167
-0.5934468601630921 0.7630031059239756 2.99206280708313 200 190 167
-0.5834908945793404 0.7717137637984826 3.0262210369110107 175 164 148
-0.5807828146900784 0.7908075963861215 3.1010961532592773 125 114 100
-0.5653263861383842 0.7931765645819915 3.1103858947753906 120 108 98
-0.5499019397833496 0.7957404540394352 3.1204400062561035 119 107 95
-0.5340352490119801 0.7978097444753872 3.128554582595825 118 107 93
-0.5179326965840207 0.7996534102071283 3.135784387588501 117 103 86
-0.5013582488264924 0.8008709689046566 3.140558958053589 122 102 79
-0.48370113864568454 0.800384395337478 3.138650894165039 119 96 68
-0.4653590387705697 0.7986859781690243 3.131990671157837 133 102 70
-0.4468401716241131 0.7965411755038538 3.123579978942871 138 103 67
-0.4278380778155748 0.79332789303491 3.1109793186187744 139 103 63
-0.40872276311600586 0.7896266994230688 3.0964653491973877 139 104 62
-0.38941460914633685 0.785213064344253 3.079157590866089 138 103 61
-0.36922621056830734 0.778539838284031 3.0529890060424805 139 104 62
-0.34982446320605015 0.7729654306768414 3.0311293601989746 142 107 63
-0.32965205918645024 0.7650415713194978 3.000056505203247 147 110 69
-0.28765795388494997 0.702952218434083 2.756577491760254 134 98 62
-0.21354448911949542 0.5510343810146421 2.1608424186706543 62 34 8
-0.2011114122276684 0.549704526755627 2.155627489089966 56 27 3
-0.1888466517253626 0.5486961770603055 2.1516733169555664 55 26 2
-0.17644228608252696 0.5471193576844743 2.1454899311065674 55 26 4
-0.16408354037252343 0.5454669044816319 2.139009952545166 58 27 4
-0.15176398029264246 0.5436981429901463 2.1320738792419434 58 28 3
-0.13935810588153166 0.5412962217924756 2.122654914855957 62 31 8
-0.12708740010395325 0.5390258694064225 2.1137518882751465 63 34 10
-0.11500931264438832 0.5371953970351808 2.1065738201141357 63 35 9
-0.10310838245884155 0.5358731426382047 2.101388692855835 65 35 10
-0.09126583420751931 0.534557028929756 2.0962276458740234 64 36 10
-0.0795292979764651 0.5335692900602841 2.0923542976379395 65 35 10
-0.06787765611759351 0.5329118107955746 2.089776039123535 66 37 13
-0.05626002984069147 0.532306436185004 2.087402105331421 69 41 15
-0.0446656903649099 0.5316657982145727 2.0848898887634277 68 40 14
-0.033116610806815654 0.5313056255528251 2.08347749710083 70 42 16
-0.0215849156139 0.53098892410194 2.08223557472229 69 41 15
-0.010071463549977497 0.5309100071345281 2.081926107406616 69 40 16
0.001439077746188275 0.5310196883434735 2.0823562145233154 69 43 16
0.01295599419383392 0.5311957619471908 2.0830466747283936 70 44 17
0.024479038313441122 0.5313391257446926 2.083608865737915 70 44 17
0.036013731929974854 0.5315626832864289 2.0844855308532715 70 44 17
0.047577992428748044 0.5320084607941826 2.086233615875244 72 43 19
0.05917076266689149 0.5325368640020234 2.088305711746216 71 44 19
0.07078313453511233 0.5330403396623765 2.090280055999756 71 44 19
0.08244423515344336 0.5337179433617649 2.0929372310638428 72 45 20
0.09411707786756199 0.5342954112789288 2.0952017307281494 71 44 19
0.10580320851824107 0.5348134786743967 2.097233295440674 71 44 19
0.11750390190510326 0.5352955531232482 2.09912371635437 71 44 21
0.129319202694412 0.5361661325195284 2.1025376319885254 71 44 21
0.14122830234032976 0.537249933645172 2.10678768157959 68 44 20
0.15315285726340985 0.5382228983828403 2.110603094100952 70 46 22
0.16521909832989354 0.5395207724223957 2.115692615509033 69 45 19
0.17726946462330703 0.5405986152562008 2.1199193000793457 70 46 22
0.18944697393117318 0.5419064603147512 2.1250479221343994 74 45 23
0.20176123593920897 0.5434298982596212 2.1310219764709473 73 46 21
0.21406768339425217 0.5447653460170969 2.136258840560913 72 45 20
0.22676563108977563 0.5469053455694589 2.14465069770813 70 46 22
0.23976583069469418 0.5495254132070941 2.1549251079559326 71 44 21
0.2526665911508126 0.5516803084890524 2.1633753776550293 69 45 23
0.2657387725297972 0.5539977800197466 2.1724631786346436 71 44 21
0.2791018299986671 0.5566950014568008 2.183040142059326 69 45 23
0.2924252253322434 0.5590927883295224 2.1924428939819336 64 44 21
0.30594840040179866 0.5616664664092722 2.202535390853882 64 40 18
0.34619889996112035 0.6112315506490593 2.3969013690948486 79 55 37
0.4451051897687446 0.7568839402058376 2.968066930770874 147 133 108
0.4595319234342791 0.7536323544322178 2.9553160667419434 184 172 162
0.4751103178673068 0.7524279282962927 2.9505929946899414 186 178 179
0.49136867776497956 0.75234457300945 2.950266122817993 183 183 190
0.5075481800112368 0.7521497125467727 2.9495019912719727 180 185 193
0.5240040880452906 0.7523638462595807 2.9503417015075684 185 184 188
0.5402874675950121 0.7523248133681489 2.950188636779785 187 184 187
0.5564412728334951 0.7521129292145043 2.949357748031616 187 184 187
0.5723435594638382 0.7515828236375669 2.9472789764404297 187 184 187
0.5886118959825724 0.7515494450434921 2.947148084640503 187 184 187
0.6051887928316856 0.7519012274575487 2.9485275745391846 186 185 187
0.6216933004387908 0.7521469765964386 2.949491262435913 184 185 187
0.6386801410136318 0.7529487924409909 2.9526355266571045 186 185 189
0.655955250905083 0.7540420173955628 2.9569225311279297 183 184 186
0.674019169466909 0.755966788854983 2.964470386505127 183 185 185
0.6920311181537213 0.7577432718063002 2.9714367389678955 183 185 185
0.7103080806616882 0.7597208167077186 2.979191541671753 186 185 187
0.7303383129705472 0.7634414659663794 2.993781805038452 186 185 187
0.7501019101543502 0.766724667166081 3.0066566467285156 186 187 189
0.7711153810609876 0.7711153810609876 3.023874521255493 187 190 191
0.7959965633761632 0.7791053896175179 3.055206775665283 187 191 190
0.8328379689707214 0.7982265209096006 3.1301889419555664 189 191 191
0.8669950907708739 0.8140488256856296 3.192234992980957 184 186 186
1.0556773388205112 0.9714337606602709 3.8094089031219482 104 99 89
1.0942626195507317 0.9872442704504156 3.871408700942993 111 103 86
1.1225953230799965 0.9933757175456085 3.8954527378082275 111 106 96
1.1473214604655457 0.9961449856747915 3.9063122272491455 202 206 205
1.1833053945104284 1.0084057519038063 3.9543919563293457 201 208 210
1.212546758305663 1.0145799406231057 3.9786036014556885 201 207 207
1.2373791034542683 1.0169106663131962 3.987743377685547 200 208 206
1.2639891785082487 1.020595201027448 4.00219202041626 200 208 206
1.2887237760025512 1.0226646738600889 4.010307312011719 200 207 207
1.3099300695378562 1.0219116187303783 4.007354259490967 200 207 209
1.331350186365588 1.0213476481681956 4.005142688751221 200 207 209
1.350718685464196 1.0192539773748226 3.9969325065612793 200 207 209
1.3662278690040228 1.0143623413732081 3.977750301361084 200 207 209
1.3809973324739633 1.009085179570084 3.9570562839508057 200 207 209
1.3971259526346742 1.0049502466319586 3.9408414363861084 197 206 210
1.4120249001237253 1.0000713783985693 3.9217092990875244 197 206 210
1.4289162650116924 0.9967298710573053 3.9086058139801025 197 206 210
1.4481976839436501 0.9951302520953573 3.9023330211639404 197 206 210
1.4618085133916539 0.9897382411771014 3.8811886310577393 197 206 210
1.4759808030170594 0.9848768830258497 3.8621251583099365 197 206 210
1.4929652666681112 0.9820038919795598 3.8508589267730713 197 206 210
1.5137514994754357 0.9816771587107834 3.8495776653289795 197 206 210
1.5301334058609792 0.978542854008148 3.8372867107391357 196 207 212
1.5465622564089747 0.9755238848118148 3.8254480361938477 196 207 212
1.562046990883685 0.9719988864014836 3.8116250038146973 197 208 213
1.5703384174655608 0.9641512080612179 3.780850887298584 197 208 213
1.578230864718877 0.9562679623666102 3.7499372959136963 197 208 211
1.5843153356868866 0.9475078749894023 3.715585231781006 197 208 211
1.5972998712552888 0.9430458439891225 3.698087692260742 197 208 211
1.6171767850595502 0.9427144292053301 3.6967880725860596 198 209 212
-1.3150535551279707 0.7758610176576604 2.977922201156616 89 57 18
-1.2959187290904521 0.7742652311681466 2.971797227859497 88 56 17
-1.2784971022619904 0.7736651806625529 2.969494104385376 86 54 13
-1.2607654331918396 0.7728594606720708 2.9664015769958496 86 54 13
-1.2430860615528159 0.77206498386394 2.9633522033691406 87 57 15
-1.2260503442674069 0.7716543902985181 2.9617762565612793 87 57 15
-1.2071808167678255 0.7700628898840444 2.955667734146118 88 59 15
-1.188907157337025 0.7688130331321756 2.9508705139160156 87 58 14
-1.1711193183250155 0.7678469269713579 2.947162389755249 89 57 16
-1.1535933324153853 0.7670276654684308 2.9440178871154785 87 55 16
-1.1367894925640412 0.766671983357144 2.942652702331543 87 55 16
-1.1188262439579408 0.7655126932343805 2.9382030963897705 88 56 17
-1.1013677685496148 0.7646697030261598 2.934967517852783 87 57 15
-1.084204672139134 0.7640096474700067 2.93243408203125 87 57 15
-1.068370940301165 0.7642805398359378 2.933473825454712 87 56 13
-1.0523536577485988 0.7644264527383849 2.9340338706970215 85 54 11
-1.0364337433927253 0.7646487695871965 2.934887170791626 84 52 11
-1.0207376114850744 0.7650458837572028 2.9364113807678223 80 48 9
-1.0051806492396798 0.7655618278047661 2.93839168548584 87 53 11
-0.9897576991306543 0.7661984652407734 2.9408352375030518 85 50 6
-0.9737831272260634 0.7664222107812649 2.9416940212249756 87 53 11
-0.9593998973951894 0.7679273064076144 2.9474709033966064 90 55 15
-0.9443519547138449 0.7689431683091135 2.9513700008392334 88 57 14
-0.9294461465059767 0.7701125213906664 2.9558582305908203 88 57 14
-0.9148546186677405 0.771588794715298 2.961524486541748 88 55 21
-0.9008053545380376 0.7735845527581781 2.969184637069702 87 56 23
-0.8863528900875641 0.775301715923461 2.9757754802703857 89 58 26
-0.8719856895808843 0.7771598226288259 2.982907295227051 89 58 25
-0.858029491590468 0.7794629357339914 2.9917471408843994 90 57 26
-0.8435996102227244 0.781417820771418 2.9992504119873047 88 56 31
-0.829208845612641 0.7834880571327459 3.0071964263916016 85 54 31
-0.813597585339374 0.7844662139972992 3.010950803756714 109 81 55
-0.7962195669723998 0.7837461533905867 3.0081870555877686 130 104 73
-0.7789046084297996 0.7830587663414252 3.0055487155914307 132 105 71
-0.762094112005526 0.7828596191446412 3.004784345626831 130 103 70
-0.7452141061308698 0.7825786017028911 3.0037057399749756 128 101 68
-0.7268871290338041 0.7807306200733451 2.996612787246704 130 104 65
-0.7084371050213706 0.7786611912334015 2.9886698722839355 133 105 65
-0.6899536407921327 0.7764552912795045 2.980203151702881 133 105 65
-0.6711453198215711 0.7737669283569796 2.9698846340179443 133 106 70
-0.6537015096342886 0.7725563295677957 2.965238094329834 200 179 144
-0.6398113440234995 0.7755912433982615 2.976886749267578 193 177 147
-0.6262320589871485 0.7791732219081022 2.9906351566314697 199 187 159
-0.6108655936890627 0.7806655214263615 2.9963629245758057 199 190 166
-0.5964899867875595 0.7835425958847037 3.0074057579040527 198 190 173
-0.595603456825547 0.8048118395097894 3.0890417098999023 20 14 4
-0.5794948345587227 0.806160710806784 3.0942189693450928 120 111 102
-0.563902486367075 0.8083317009900657 3.1025516986846924 121 109 99
-0.5480981304467902 0.8103254712879997 3.1102042198181152 122 107 98
-0.5322498556446368 0.8123813586154982 3.1180951595306396 120 106 91
-0.5162040664832669 0.8142633182602159 3.1253185272216797 122 104 84
-0.49939559026297076 0.8150308983945453 3.1282646656036377 123 100 74
-0.4818701632418401 0.8146414867362051 3.12677001953125 130 102 72
-0.4637248558832189 0.8131361426417373 3.1209921836853027 139 106 72
-0.4451627360064865 0.8107553211325865 3.111854076385498 140 105 67
-0.42629839239545725 0.8076105222768211 3.0997836589813232 141 105 65
-0.4076424776165156 0.8046136861854785 3.0882811546325684 140 105 63
-0.3886632741805218 0.8006888216724412 3.073216676712036 139 104 62
-0.3690684300178802 0.7950788463813763 3.0516843795776367 138 103 61
-0.3500954961179394 0.7903353415357075 3.033477783203125 138 103 61
-0.3294270454370023 0.7810943152814457 2.9980087280273438 144 106 67
-0.2312222620276496 0.5772900184398934 2.215763807296753 83 47 17
-0.2127925431989175 0.5609985229789642 2.153233528137207 55 27 1
-0.20060761922673453 0.5602153514702142 2.1502275466918945 54 25 3
-0.18828754688731794 0.5589323242245581 2.1453030109405518 53 24 2
-0.17577971849392626 0.5568819653126907 2.1374332904815674 57 26 5
-0.16347103845068517 0.5552124459090838 2.1310253143310547 60 30 5
-0.15124054479950033 0.5535697610622488 2.124720335006714 60 29 6
-0.1389807317455944 0.5515340617693587 2.1169068813323975 61 32 8
-0.12674935922906289 0.5492472233259391 2.1081295013427734 62 33 11
-0.11464333887819268 0.5470954273047929 2.099870443344116 62 35 12
-0.10275738268640408 0.5456272291940047 2.0942351818084717 65 36 14
-0.09094442899811961 0.5442230116236682 2.0888454914093018 64 35 11
-0.0792246188894506 0.5430487512967795 2.084338426589966 66 38 12
-0.06761467650558235 0.5423560221830754 2.081679582595825 67 39 13
-0.05603704469832042 0.5416914320837641 2.0791287422180176 68 40 14
-0.044499371276800814 0.5411697732694809 2.0771265029907227 68 40 12
-0.0329868045041246 0.5406967520893466 2.0753109455108643 68 40 14
-0.021495687054813674 0.5402582679776504 2.0736279487609863 67 40 17
-0.010031125706624875 0.540247770199654 2.073587656021118 69 40 18
0.0014326034051810861 0.5400914837532695 2.0729877948760986 68 41 16
0.012896228878760001 0.5402086985880579 2.0734376907348633 70 44 17
0.024362226827428307 0.5402682067023807 2.0736660957336426 70 44 17
0.03583699909486426 0.540421946350553 2.074256181716919 70 44 17
0.047336304458411735 0.5407814176006431 2.0756359100341797 70 43 18
0.05885837793764449 0.5412099629876091 2.0772807598114014 70 44 17
0.07041524634513284 0.5417662831043895 2.079416036605835 71 45 18
0.08199210935117474 0.5422986881647873 2.0814595222473145 72 45 20
0.09362129829297526 0.5430035300992565 2.08416485786438 71 44 19
0.1052695757814843 0.5436524667071175 2.086655616760254 71 44 19
0.11688489647855956 0.5440198268199624 2.0880656242370605 71 44 21
0.12867369784647606 0.545056000990129 2.0920426845550537 71 44 21
0.1405448963831267 0.5462415044993688 2.096592903137207 71 42 20
0.1523784696298935 0.5471112671473318 2.099931240081787 71 42 20
0.1643971043367322 0.5484752949995403 2.1051666736602783 70 43 18
0.17640103905676283 0.549613154747104 2.1095340251922607 71 44 21
0.18860997727485546 0.5512090033536473 2.115659236907959 73 46 23
0.20086014307624672 0.5527319265674819 2.121504545211792 73 46 21
0.213142569694714 0.5541706812062565 2.1270267963409424 72 45 20
0.2258024594231132 0.5563890666830958 2.1355414390563965 71 44 21
0.2386628731384795 0.5588565414484893 2.145012140274048 71 44 21
0.2514988595379279 0.5610359174307622 2.153377056121826 70 43 20
0.264491149519493 0.5633512054737223 2.1622636318206787 69 42 19
0.27804871320272845 0.5666181885266413 2.1748030185699463 69 42 21
0.2916018606452652 0.5696057070635492 2.186269760131836 62 42 17
0.3050889195227451 0.5722314560202731 2.196347951889038 63 38 20
0.41144054397171265 0.7421678711834242 2.8486006259918213 128 98 71
0.4475420284810634 0.7775269342735525 2.984316349029541 140 108 71
0.46342442448061333 0.7764933690186276 2.98034930229187 143 107 74
0.4799778275816852 0.7766164849712246 2.9808218479156494 143 113 88
0.49574235989535287 0.7754973845665893 2.9765264987945557 189 169 160
0.5113279060251132 0.7741791990821997 2.9714670181274414 192 181 181
0.5269520220520002 0.7729996588077981 2.966939687728882 188 181 184
0.5429775987932964 0.7724624707361236 2.9648778438568115 187 182 186
0.5590363338356475 0.7720025562492275 2.9631125926971436 187 184 187
0.5747846969382295 0.7711524225826069 2.9598495960235596 187 184 187
0.5911226748854383 0.7711185066844646 2.95971941947937 187 186 188
0.6073731355400571 0.7709753269313183 2.959169864654541 184 185 187
0.6236146048782214 0.7708285443904572 2.958606481552124 184 185 187
0.6404862427486854 0.7714482859944229 2.9609851837158203 186 185 189
0.6575676055057582 0.7722834494569185 2.964190721511841 181 184 185
0.6753510114708701 0.7738824660319696 2.9703280925750732 183 185 183
0.6930386995421227 0.7752984858379236 2.9757630825042725 184 184 180
0.7106007729744299 0.77651156930829 2.980419158935547 184 184 182
0.7298170594822394 0.7794363496453378 2.991645097732544 184 184 182
0.7493892711321541 0.7826032000465987 3.0038001537323 185 185 185
0.7701343908690063 0.7868310714298519 3.0200276374816895 183 186 187
0.7939997493437806 0.7939997493437806 3.0475425720214844 184 186 186
0.8236347955490964 0.8065203062909333 3.0955991744995117 187 189 189
0.854021508889807 0.8192521853726648 3.1444668769836426 183 185 185
0.975991495054944 0.9175780389918052 3.521862745285034 159 157 154
1.0974063426449958 1.011545699699666 3.882530927658081 113 103 89
1.1239689273350573 1.0161541621230614 3.900219202041626 112 104 89
1.145904277736529 1.0164845004862857 3.901487112045288 151 150 144
1.183561091271448 1.0304908346635935 3.9552464485168457 203 209 209
1.2188781700050237 1.0419888210700543 3.999378204345703 201 207 207
1.2445884767551947 1.0450108145583705 4.010977268218994 200 208 206
